117.693195,-209.101425,-342.849441
117.679142,-209.008653,-334.751248
159.538980,-156.989114,-339.210590
117.193546,-220.580994,-353.397812
117.416588,-214.765361,-345.260569
152.101862,-146.072568,-308.257934
118.046870,-213.494793,-344.638568
147.630169,-132.613613,-315.402260
117.775084,-183.294502,-313.257009
171.942063,-125.577764,-291.282471
117.207118,-218.658243,-364.644165
118.155709,-205.316687,-336.781054
159.703276,-141.725613,-312.825195
128.027144,-213.576202,-416.643954
127.849955,-201.069760,-344.791599
131.121147,-209.160729,-416.225464
117.834609,-223.582191,-376.706835
182.572845,-137.552540,-287.988632
171.735599,-152.880191,-301.305780
117.670280,-221.046631,-354.787888
117.631335,-210.798770,-346.660190
117.581439,-222.859909,-362.642619
117.504978,-207.136743,-324.812788
140.354318,-209.889865,-402.555949
118.070611,-221.545071,-356.487941
163.970345,-141.542304,-344.437953
136.852215,-214.116005,-425.232651
121.390039,-216.825012,-355.109355
117.889189,-213.220540,-350.825889
148.905048,-167.827164,-338.746552
118.099207,-193.404157,-318.939843
128.076573,-205.306310,-352.851699
122.519499,-214.119760,-360.653027
118.117766,-211.698237,-313.061435
117.648806,-204.853958,-334.870117
117.266019,-208.847081,-322.350657
140.156256,-181.423284,-328.579487
130.684674,-213.905238,-398.812276
120.309275,-209.407555,-342.551892
118.137300,-215.455936,-354.730807
119.554063,-209.232592,-340.724991
151.722232,-185.230126,-368.925423
179.464742,-124.296120,-288.935160
144.624821,-173.254003,-340.684975
133.769794,-203.088420,-358.867108
117.916953,-209.501834,-320.592392
136.092448,-203.460577,-358.725964
127.989632,-219.414312,-386.715383
149.813936,-197.370972,-412.845340
128.654907,-220.134819,-400.722038
117.258110,-177.386337,-311.539642
140.137224,-159.414943,-316.751694
128.423917,-209.778300,-364.505424
137.799022,-119.275698,-312.614644
156.030326,-163.557964,-344.826778
133.773917,-213.104538,-430.127964
123.523088,-210.994287,-354.851505
118.197388,-179.296777,-312.680061
117.329971,-187.150940,-313.506118
118.161849,-169.240715,-310.730154
118.708346,-221.925299,-380.517413
123.831468,-167.255580,-311.289225
153.679737,-152.749008,-321.154732
118.014711,-219.350731,-352.752448
145.708087,-171.445229,-346.794753
121.971691,-205.073654,-342.899391
138.235043,-127.552863,-306.775358
124.688721,-218.300396,-386.821312
117.957337,-211.468377,-348.658279
117.884490,-209.265125,-336.640716
122.332414,-224.218819,-388.471985
145.025787,-176.384354,-353.899170
118.174256,-203.444815,-332.742371
138.205641,-199.521822,-366.518543
121.902506,-201.060679,-326.795911
127.581956,-115.238547,-312.563643
117.640020,-222.900999,-360.709194
170.165924,-129.459692,-291.431445
118.250282,-217.446450,-350.650182
130.100116,-123.644456,-316.310659
118.139984,-177.341295,-313.933910
129.700778,-202.859286,-345.084558
159.327850,-148.548294,-313.654724
117.891512,-196.635315,-321.288651
137.302140,-153.096389,-313.579346
158.007886,-160.926052,-342.936374
118.181261,-217.352573,-360.743556
131.718170,-165.191541,-317.318573
117.924455,-215.106288,-346.680273
117.478579,-206.573425,-326.651123
153.021705,-189.355778,-389.149368
118.193916,-207.450722,-340.818555
137.629965,-197.614404,-311.913715
143.438751,-153.030372,-315.606628
117.695932,-216.671839,-356.718190
118.198992,-223.939540,-372.704060
118.145163,-224.856684,-382.572917
118.051141,-221.367330,-376.561960
147.785847,-184.743520,-392.761820
123.988889,-223.509723,-400.701853
117.948174,-218.815500,-368.563641
121.725063,-195.079714,-323.154261
142.799177,-208.033529,-406.659057
118.186133,-224.934671,-380.573533
159.673584,-163.604378,-350.700356
117.568164,-222.495720,-357.267913
154.507864,-133.693600,-340.440319
190.158909,-153.293765,-296.494127
118.390690,-219.655169,-372.752340
153.928652,-162.869972,-312.033559
122.887619,-214.328644,-362.294373
143.992117,-197.306854,-303.031169
131.896070,-215.494624,-390.800580
150.179446,-161.642454,-354.644318
118.221666,-211.634579,-319.110993
127.847182,-197.010068,-318.270898
118.318108,-202.996918,-310.852173
118.198758,-175.304115,-311.278431
125.740139,-199.101401,-332.995649
128.463959,-207.759375,-352.845629
118.436873,-209.505299,-338.568288
146.560986,-183.554350,-299.251251
153.299927,-138.119049,-307.366058
122.437880,-165.516840,-312.050823
128.654959,-205.971745,-348.425789
144.475598,-132.709529,-308.708243
118.370645,-221.716769,-378.669791
144.135303,-191.350319,-396.636928
120.032870,-191.393327,-318.860587
118.259442,-207.515979,-311.017975
174.175180,-165.496025,-294.699237
132.757710,-215.914540,-400.689475
118.542894,-219.924383,-354.368320
148.846679,-190.271751,-408.167237
129.688455,-159.162399,-314.636044
140.188320,-207.646447,-396.659648
118.519129,-205.308630,-328.742164
145.287152,-185.061199,-377.073738
118.271469,-205.371953,-310.765533
143.678405,-134.777908,-315.338562
132.538721,-211.910855,-398.568018
118.436420,-198.709037,-311.816894
118.568089,-207.669430,-320.966244
154.654903,-181.681771,-368.546911
118.533104,-216.001287,-356.525288
129.998939,-217.207413,-428.389618
118.608337,-205.514215,-324.621479
152.115546,-135.636819,-324.746241
118.659972,-207.832338,-334.605427
157.978995,-162.911277,-345.317610
128.442471,-195.742292,-311.326930
121.529480,-196.770621,-325.025525
133.459511,-212.554898,-382.865265
130.062274,-216.102476,-429.488368
136.840866,-190.295838,-340.321472
155.155746,-170.708862,-297.891968
118.507406,-221.615517,-358.654717
118.644192,-203.574565,-334.629721
157.330376,-171.407499,-362.705211
122.918787,-222.131275,-378.598007
143.806478,-183.475903,-340.648167
143.845211,-206.794361,-414.746128
150.168268,-191.620780,-410.745053
118.605827,-213.946289,-346.348572
132.237571,-219.093882,-418.696505
150.122696,-175.006640,-374.620440
118.558489,-221.583202,-360.647026
128.821228,-126.854477,-315.735535
142.830937,-207.980406,-408.650181
123.034275,-201.902543,-340.103836
118.641905,-209.767758,-346.515796
126.106187,-221.031701,-384.788874
135.221222,-164.944382,-319.468246
118.691699,-219.961069,-374.560315
141.425491,-204.892765,-392.868103
134.116957,-187.560485,-322.796738
118.662427,-212.061345,-350.208659
126.318067,-219.592397,-414.719931
119.757565,-224.663601,-380.772621
118.798216,-223.708857,-384.027502
129.989973,-193.421085,-334.737619
124.008662,-215.258172,-358.711482
137.321487,-202.995679,-406.478503
155.606623,-162.701482,-343.469706
118.609192,-206.410980,-339.891235
118.647659,-194.342667,-319.900421
143.958508,-181.564360,-358.625517
118.871475,-209.744822,-319.362945
159.821116,-159.200231,-342.704129
123.439389,-202.511953,-337.074849
118.816278,-205.917728,-322.759644
121.388731,-208.694412,-343.252045
145.484253,-204.528950,-402.746017
118.889899,-222.322815,-382.616448
150.778979,-185.581022,-307.120143
142.147932,-143.380474,-308.172138
137.776830,-209.125275,-392.723719
127.878753,-201.115913,-340.848886
118.808525,-222.404327,-368.487579
118.824249,-210.262405,-347.985321
143.079720,-179.699226,-349.152145
152.667999,-179.777359,-309.272293
118.883503,-218.224121,-368.276276
133.972935,-127.452309,-314.420032
118.860031,-183.575500,-315.708496
131.929139,-209.107774,-428.908961
118.895279,-220.422424,-356.102081
118.948486,-224.455597,-383.774048
131.910722,-211.150724,-370.803032
141.075874,-153.242928,-325.921433
180.312330,-163.715453,-300.672138
129.426087,-208.865399,-356.817682
119.469809,-219.084900,-354.779734
118.981766,-175.667145,-313.817840
119.013504,-204.402283,-326.784119
137.628667,-203.081589,-404.440991
144.060740,-183.416785,-358.777920
120.071431,-217.601604,-368.715997
176.952286,-146.275421,-299.701599
120.135644,-167.152539,-310.596656
120.029130,-215.538899,-358.756362
122.342488,-219.331135,-382.675486
191.265682,-143.709862,-297.171753
119.611624,-220.892582,-364.843613
119.572683,-216.929428,-362.798008
145.849030,-183.411371,-300.660151
133.608602,-206.865881,-412.717590
161.966005,-141.931357,-328.815613
143.059822,-179.866349,-352.167817
120.187716,-209.665017,-348.632046
119.866135,-223.765750,-384.879689
124.447864,-224.146456,-394.557144
133.608154,-210.516739,-375.162598
120.257443,-173.367350,-312.618569
119.758026,-223.668106,-386.508940
150.054031,-167.489281,-362.761335
119.476174,-207.140074,-336.752045
120.106707,-207.835731,-311.040295
130.084545,-183.698290,-316.316951
124.318253,-201.447885,-336.615519
145.283249,-138.727173,-323.187745
120.152613,-207.336906,-344.520778
154.373924,-151.550029,-320.487930
119.490012,-223.570353,-388.706177
128.706764,-199.930252,-315.544296
145.603010,-181.175377,-304.536282
119.531130,-196.989115,-323.075862
124.255499,-185.595091,-318.667813
160.993195,-142.697510,-314.958242
147.369179,-178.449700,-354.979065
119.868957,-201.380334,-328.723694
156.393726,-149.248718,-314.783520
119.362184,-207.070166,-320.229901
148.045877,-189.227354,-404.827066
119.287983,-218.558212,-371.396347
145.019730,-186.299416,-378.137558
119.932103,-208.864674,-346.906238
119.240230,-222.765564,-371.390808
130.407412,-141.671514,-304.051646
119.885319,-189.538060,-314.240043
142.800697,-179.877319,-332.393486
127.395493,-174.960556,-315.460449
120.199384,-207.478675,-319.105901
146.028858,-197.236935,-304.682002
133.427896,-210.720975,-398.883221
147.643768,-192.828483,-376.974238
119.990103,-211.361160,-313.024480
140.628649,-198.019865,-384.390106
120.174119,-215.408684,-350.626657
120.235045,-175.357786,-312.570473
136.474796,-205.646896,-375.013360
124.491232,-219.423065,-406.567562
119.337986,-220.630413,-378.493362
129.457565,-112.832958,-317.086075
120.004840,-212.819455,-315.034604
124.879305,-224.043156,-396.497078
119.800649,-201.056859,-311.153595
135.898680,-213.051568,-400.825581
138.355808,-179.389326,-328.680119
150.618265,-169.791199,-309.126929
134.335037,-175.487736,-317.169044
131.837280,-213.138306,-376.766322
120.083605,-217.895828,-370.594858
132.269663,-143.608848,-316.914388
135.648778,-161.335762,-319.293193
120.078245,-177.290303,-313.197647
133.620827,-192.587311,-333.338028
119.897340,-213.005655,-316.494217
139.915498,-191.401616,-354.841696
147.862008,-179.029577,-356.915785
119.944906,-224.675302,-388.431162
148.952850,-176.409515,-375.891052
119.968522,-205.431496,-332.539335
120.000182,-201.406516,-332.643967
164.775837,-139.241905,-290.024368
120.160842,-205.336733,-320.625460
147.432700,-159.124608,-348.813843
119.239552,-220.644342,-360.693103
129.781061,-206.955415,-352.920328
143.645106,-187.074977,-300.477088
120.048964,-199.273770,-326.743258
175.957382,-159.556012,-303.936383
131.723709,-198.903838,-346.681601
124.239578,-193.034204,-313.870233
120.265881,-205.609044,-338.660810
128.089892,-211.367632,-364.798935
120.087807,-219.415736,-376.726432
136.091808,-193.489423,-338.651494
130.101046,-203.427460,-314.643992
120.122100,-179.388747,-314.652850
119.853543,-203.371540,-326.691721
149.461823,-198.475739,-402.539398
120.308204,-213.678814,-354.545024
129.479073,-165.010918,-313.311272
120.124100,-199.774738,-311.516785
140.404255,-197.403192,-382.675474
119.554840,-192.791565,-319.428487
132.112887,-203.385128,-356.664020
161.443081,-160.913969,-300.841255
128.016575,-213.244279,-376.940345
123.618569,-224.700974,-398.081146
143.498478,-193.047511,-386.722256
125.751722,-147.788724,-308.450714
122.410053,-207.882385,-348.261419
168.650368,-147.455320,-334.665685
119.816962,-203.328832,-336.772110
153.803176,-161.394968,-320.682662
120.315203,-191.263058,-314.034321
132.081822,-217.816851,-410.713867
142.706853,-182.123327,-315.513052
120.283549,-195.774921,-322.517831
145.754151,-169.364694,-342.539189
157.872560,-139.751708,-314.501315
120.263305,-213.753957,-350.491750
123.161046,-216.647117,-361.152313
162.722687,-144.578232,-315.980286
131.555542,-126.646179,-315.691406
120.049931,-221.269690,-382.731553
120.085180,-193.651613,-320.443797
152.128585,-175.048328,-374.840482
127.542842,-119.138177,-308.512304
138.075230,-201.508901,-362.685486
146.414618,-165.861496,-350.750026
120.177494,-209.538371,-318.473933
119.427178,-198.714518,-325.009115
120.532761,-201.874112,-326.852972
119.637810,-189.278808,-317.545959
128.258827,-175.272471,-316.791334
119.933797,-210.009186,-311.973877
137.102509,-200.411682,-415.143036
121.912677,-221.318414,-396.716365
157.334137,-167.654453,-360.452728
122.854672,-220.045984,-392.458655
136.042517,-110.824268,-310.050525
120.007543,-181.277624,-314.385708
120.297609,-217.120910,-366.744972
120.260179,-171.579798,-312.972153
132.737448,-208.000382,-428.216669
137.386271,-165.477157,-321.332784
146.877780,-173.485520,-340.319941
151.648109,-191.043784,-302.648003
119.484085,-180.468430,-313.589722
120.181284,-177.373487,-314.661663
120.338167,-223.750295,-378.595655
142.861226,-186.208735,-362.299306
119.558975,-216.486527,-361.037308
137.076904,-206.131454,-397.369141
171.606308,-142.463654,-295.524017
123.636066,-215.026848,-357.000183
140.815997,-169.197189,-326.396015
145.870506,-161.461754,-340.823782
132.262878,-203.635729,-352.990916
147.720796,-201.192060,-402.583033
156.623520,-178.045899,-307.067856
130.181987,-129.231415,-315.753118
147.020622,-165.595642,-356.343597
120.199207,-221.631273,-384.731987
136.418567,-197.644322,-354.745675
141.612202,-185.290723,-336.834540
123.598222,-201.013278,-320.236796
120.306604,-221.646600,-370.717906
139.311852,-189.151619,-348.625381
120.436580,-201.671666,-334.624481
144.345241,-185.496256,-366.786494
130.601939,-117.072993,-317.808187
128.238622,-199.369670,-338.741598
120.191743,-219.297370,-358.705424
126.468934,-151.013007,-312.802446
120.395649,-183.305456,-316.309258
120.212943,-224.867766,-390.670921
162.114719,-145.440980,-346.051694
132.373505,-205.707598,-356.592316
120.399311,-208.794460,-311.353745
123.892336,-209.505415,-352.605634
147.215836,-170.506287,-327.882019
120.631637,-211.926308,-317.306862
120.373519,-219.618108,-362.758852
139.671519,-179.242666,-330.833756
132.134993,-195.209296,-308.685075
120.605973,-211.703373,-346.443638
129.966202,-163.348248,-313.017798
120.381346,-189.533910,-318.055272
128.728668,-175.614965,-317.830292
127.409742,-123.692752,-315.493276
154.211420,-172.143408,-370.168530
130.042747,-219.166777,-422.672311
120.441029,-217.714269,-354.480123
136.854538,-175.956516,-324.032799
147.315155,-137.384373,-332.689026
135.047821,-191.925034,-339.810883
120.480493,-221.870239,-390.423140
144.666285,-189.889881,-392.642262
124.295522,-219.219073,-394.640336
126.235441,-193.683527,-313.350430
120.730433,-217.992497,-372.512660
120.129875,-198.995819,-311.772919
120.562360,-205.795507,-342.531591
129.351196,-188.520462,-325.513916
120.658934,-166.009958,-310.636810
139.282653,-114.197216,-309.401916
131.470108,-113.049364,-310.128433
149.293979,-168.799765,-343.098230
120.706919,-202.189842,-336.451660
125.901385,-217.221324,-384.682279
120.612858,-216.141032,-362.499314
134.143960,-205.989176,-310.831295
120.509293,-206.008713,-319.514237
125.895769,-201.346772,-342.854894
149.999764,-137.619108,-306.151505
120.623387,-207.878352,-346.157003
120.807340,-218.021460,-356.537805
120.684296,-214.322102,-356.586174
120.822864,-200.120659,-330.498983
120.823925,-224.750449,-394.560492
130.068921,-219.400449,-406.628355
142.997737,-194.195923,-410.143433
120.750156,-223.443167,-396.785147
168.869752,-147.351886,-330.734828
134.184616,-193.226960,-340.781947
120.847768,-204.220322,-340.385264
163.549820,-142.140945,-331.121191
128.433729,-193.644791,-324.565826
126.526011,-221.998777,-392.654423
120.849167,-223.718112,-397.893567
120.949081,-202.264198,-324.684906
122.517717,-197.642366,-328.737143
128.250848,-163.489285,-314.921195
126.711144,-218.696234,-420.117273
120.896382,-222.221970,-374.111176
120.989387,-179.701599,-315.757767
120.980934,-210.097046,-349.946136
121.015905,-197.968353,-326.117645
164.688042,-169.693462,-307.049377
128.801487,-219.718122,-396.448822
140.140039,-171.491337,-316.794817
121.076836,-220.285591,-382.243408
121.082893,-214.399200,-357.727173
151.763204,-133.828952,-330.754150
168.790098,-145.298012,-336.669737
130.200323,-213.588824,-384.607189
121.085518,-220.283600,-368.023743
121.110428,-222.475433,-397.416565
155.712455,-179.567405,-370.880585
136.198878,-195.213360,-348.741303
156.044113,-175.383653,-360.722738
121.290052,-191.036738,-319.448273
123.002787,-224.301549,-390.330912
122.263046,-207.502724,-344.562023
130.595975,-212.094675,-404.829370
122.028656,-167.599466,-310.451416
151.251156,-194.743214,-392.837768
166.052109,-131.371811,-290.487968
122.247319,-219.497833,-368.610769
138.286928,-175.145488,-316.764208
131.790596,-203.205862,-354.995679
162.219875,-150.108789,-320.627162
138.638331,-149.343623,-322.202840
121.692431,-203.189972,-310.471130
121.994416,-207.439209,-310.727257
121.695874,-218.881380,-378.724814
125.064842,-122.031067,-311.313599
154.170565,-171.036748,-368.726394
122.186130,-221.437937,-374.715156
121.717796,-193.026337,-321.231903
182.492573,-129.180727,-288.462686
121.996587,-209.263608,-344.908893
121.289208,-204.778187,-336.608299
121.895417,-224.995728,-392.739965
136.090488,-209.537917,-386.738637
128.792752,-119.391403,-307.289825
121.522136,-220.852426,-390.567596
136.478710,-193.322159,-304.945450
144.873123,-198.193603,-384.353714
155.253929,-178.756126,-307.825653
122.090805,-189.305402,-318.991309
121.909697,-217.349410,-358.732578
121.705690,-175.383658,-313.347351
121.160690,-204.696457,-333.636658
126.316991,-213.621015,-360.735858
167.865721,-151.203143,-297.238028
121.886172,-223.279636,-380.739362
141.349938,-149.051350,-325.463485
122.113863,-211.205598,-352.853429
140.872574,-167.446228,-326.013794
121.976171,-213.277583,-356.799652
142.696411,-196.212686,-374.671222
122.238935,-193.876677,-322.435647
138.334001,-213.425275,-422.825201
145.843224,-177.235414,-364.763716
121.984367,-199.366229,-332.775691
121.345405,-222.724545,-376.834305
122.141402,-201.268246,-310.782883
147.232895,-148.734385,-337.260539
142.960342,-204.194950,-394.316795
145.981453,-181.542234,-374.554983
153.289643,-186.645630,-375.041443
121.954002,-216.851846,-370.825137
121.224317,-204.748100,-334.834991
121.548831,-219.032587,-364.573285
126.544360,-215.650177,-412.653615
121.812660,-215.183481,-352.747708
122.031328,-197.296447,-326.814155
131.011429,-202.135178,-351.868347
152.823743,-160.087204,-330.669452
121.952650,-213.100522,-354.808704
133.434753,-204.818642,-313.714004
121.833109,-220.925973,-392.877079
174.183753,-143.330085,-297.123444
123.948689,-207.203598,-348.995224
186.970841,-150.119209,-293.895111
146.194517,-163.500887,-316.253618
133.592415,-205.249051,-418.632056
121.305384,-220.520683,-384.877838
130.258212,-211.654581,-408.716698
121.256645,-220.518799,-369.596313
126.126936,-217.472240,-416.709802
123.771622,-213.128390,-352.877633
150.243307,-185.881292,-368.409047
150.294501,-139.401021,-338.958544
123.538272,-135.187108,-310.621667
142.072030,-195.413555,-400.812342
146.064186,-189.269483,-368.627828
121.647344,-206.869364,-340.927679
140.098607,-183.608688,-316.704759
146.018426,-187.186303,-298.602492
132.765543,-208.085507,-376.174927
121.462233,-224.582245,-388.895721
121.836435,-199.123894,-330.829110
127.469930,-214.918906,-380.739018
136.511012,-155.210757,-320.314524
121.632575,-216.663503,-368.826564
122.017689,-217.615626,-360.638814
126.111886,-211.483148,-362.710835
123.207561,-185.461074,-315.449158
122.154137,-225.071918,-394.753972
144.917557,-165.212566,-336.162773
122.018411,-201.033856,-336.852370
121.855168,-214.707912,-360.852343
149.605225,-192.204597,-412.098297
150.186507,-132.876458,-314.838162
122.136395,-219.073937,-380.727818
122.190143,-181.417265,-314.933698
128.502233,-196.202876,-338.061076
122.295320,-189.188504,-314.841746
126.242710,-201.857280,-340.584456
149.941206,-197.524316,-400.768334
166.770182,-141.353078,-340.833028
121.766040,-208.841576,-348.998776
146.384703,-203.198786,-402.647812
122.168425,-211.549273,-316.580400
146.867640,-201.984536,-398.716159
124.121781,-177.183214,-314.936478
121.948429,-169.509832,-311.007857
156.830551,-169.891022,-315.592041
139.321446,-198.886143,-360.826895
128.269475,-213.872172,-370.818705
121.995311,-201.031432,-324.728027
141.933519,-145.466021,-324.753288
121.773477,-216.922636,-356.675838
141.867103,-197.581855,-388.672157
121.403109,-220.560551,-386.899201
122.253498,-217.878872,-376.593287
121.367256,-186.956818,-317.646851
137.632048,-185.130195,-329.007772
127.356799,-218.135461,-422.865912
148.644398,-133.950384,-334.439262
122.214200,-181.310557,-316.641372
122.193942,-215.673706,-354.617109
127.264770,-208.709053,-351.078918
122.068328,-171.415773,-312.509755
121.913102,-221.126804,-394.631153
121.911205,-222.858214,-378.730228
123.989996,-201.451339,-334.712433
122.226395,-223.408997,-382.592050
131.041000,-182.214340,-321.939423
126.569485,-207.662209,-354.571275
123.299876,-133.504311,-308.512726
146.090409,-146.346001,-309.748947
150.529975,-134.620122,-324.509051
122.161061,-173.528627,-312.791046
122.247347,-215.797474,-366.521071
122.045322,-195.542234,-312.937998
144.240169,-191.411267,-390.731728
171.948972,-161.381904,-305.220557
122.363056,-199.676456,-334.466014
169.624199,-131.290543,-291.490517
126.471599,-213.938040,-372.701996
147.960007,-135.287422,-324.707224
121.616344,-218.541100,-377.402313
122.449840,-205.711425,-340.488076
136.693649,-185.904223,-328.319738
122.076553,-221.377536,-398.783669
127.003357,-203.921463,-348.160004
122.184551,-179.562839,-316.249756
124.053379,-222.770315,-402.710848
122.382390,-192.943614,-313.871562
122.245537,-223.238258,-400.217226
142.637364,-189.687210,-368.515485
126.283568,-195.543594,-312.372753
122.421552,-211.918313,-354.664225
147.975231,-148.878575,-312.925972
122.271680,-222.084256,-376.793521
180.076724,-163.836651,-298.398451
124.412055,-143.320192,-312.744086
122.314678,-219.627543,-384.663134
133.542814,-121.403290,-316.100840
132.923546,-211.947151,-394.587364
122.530608,-220.100681,-390.681989
127.490422,-217.003736,-374.633167
122.672684,-202.202124,-332.378406
122.847135,-198.001516,-330.617696
122.668104,-207.336049,-317.512889
143.994293,-153.578817,-316.049779
122.677239,-206.303818,-346.248413
122.930535,-221.767283,-402.155321
122.948456,-212.118111,-356.134811
122.957416,-219.938774,-372.108170
123.067589,-220.086700,-394.400116
147.526686,-135.310528,-330.691305
136.134508,-213.344647,-402.718664
123.927242,-223.012869,-386.730366
124.126909,-219.336214,-396.603257
124.039529,-165.261772,-312.965518
145.781555,-203.562488,-398.800388
123.829870,-187.325779,-319.126633
154.433602,-132.964566,-336.402791
124.229084,-179.492313,-317.075294
124.671705,-222.132346,-384.467386
172.257581,-135.902583,-285.067357
148.374475,-192.194499,-412.290850
124.169945,-205.456743,-317.054005
136.261211,-139.333191,-316.690720
149.524521,-182.640701,-363.641266
123.696238,-221.017299,-376.696860
125.715173,-214.938774,-375.006032
123.134079,-202.466888,-334.455139
141.204305,-192.692881,-359.051717
151.359284,-194.853733,-404.886154
144.188786,-141.436870,-324.477482
123.991204,-207.193106,-316.978172
132.929688,-202.280853,-355.897156
146.224758,-193.349247,-301.063615
123.865020,-199.231317,-336.848343
145.507544,-175.001290,-336.770673
154.609726,-158.362350,-351.955551
123.424230,-200.824520,-331.391838
149.764877,-197.291856,-394.733354
133.531983,-131.876038,-301.585368
141.382107,-175.280645,-330.628394
125.062614,-199.752777,-319.479248
123.445333,-221.550459,-403.080972
124.063355,-163.429326,-310.819863
123.603063,-203.127259,-318.189489
124.258987,-211.459849,-350.768459
131.969559,-171.398985,-318.513641
123.781050,-199.522123,-322.617549
135.920265,-146.780666,-309.507568
123.267695,-214.625646,-354.973063
151.672325,-183.549444,-388.640418
142.160364,-201.373384,-308.661924
124.045307,-211.344169,-356.850782
139.872116,-131.514500,-305.153912
123.415776,-216.689885,-374.688429
152.154521,-185.401418,-390.725749
127.941823,-215.297975,-370.906182
166.929565,-150.359650,-325.697357
123.498283,-220.550267,-374.917786
158.296339,-161.762063,-344.205580
144.847916,-190.521515,-299.539124
123.415569,-218.849163,-385.003525
133.401996,-159.473408,-317.500710
146.823540,-159.380299,-346.810967
123.195160,-188.889633,-319.505798
123.773961,-205.728049,-309.916626
124.874870,-131.904083,-305.501343
124.034934,-211.278595,-314.713902
123.962964,-209.033486,-346.918807
136.659280,-214.186267,-408.570782
126.289312,-217.818939,-392.626981
124.124239,-213.432509,-362.785321
132.141573,-121.291462,-316.695238
123.495299,-211.013445,-349.011897
134.778162,-187.899557,-319.253955
126.569578,-117.461829,-315.949811
134.219055,-143.205290,-317.386667
130.157550,-137.704703,-315.932580
148.879521,-137.554657,-336.511421
123.726766,-201.295539,-332.924988
153.941509,-179.206524,-308.662857
123.940643,-210.815059,-313.291168
124.867528,-208.413462,-352.330902
123.776755,-213.076709,-360.775296
148.767792,-158.306976,-349.805389
140.957642,-200.039345,-392.734657
124.422386,-215.639452,-362.555649
123.339565,-135.456107,-308.599169
143.693212,-180.808996,-316.124451
123.695860,-218.866333,-386.710093
165.866207,-123.413329,-290.634685
123.577156,-206.698223,-343.309288
123.666291,-204.893712,-341.046204
152.526199,-191.215515,-400.594387
138.156481,-173.458738,-317.099265
123.301575,-222.446259,-381.559753
187.916787,-156.969432,-303.968471
154.337408,-162.075067,-313.051685
165.852213,-155.203879,-298.751104
130.661457,-214.314835,-394.576950
124.340509,-203.802650,-344.516909
124.013627,-171.260902,-314.614765
130.417610,-151.262782,-316.134333
123.874687,-205.178539,-344.849388
123.551931,-198.751055,-335.017533
151.972195,-189.198770,-300.774249
124.249528,-201.421345,-310.089359
129.210709,-210.550087,-426.897553
123.333252,-168.471191,-311.437622
154.359467,-183.723923,-298.019428
143.895895,-175.412108,-336.819486
127.650256,-216.710317,-390.642029
124.162314,-167.496824,-312.597946
133.630969,-209.466651,-386.631367
124.386855,-201.566739,-338.612921
130.126964,-145.572015,-316.332942
124.168999,-165.370349,-310.866486
142.483069,-195.522130,-386.457618
145.190155,-159.218979,-337.266037
130.170815,-207.406136,-362.705022
180.284939,-143.411942,-289.946301
124.322674,-209.799139,-348.405925
170.552495,-167.975779,-303.306295
123.856737,-197.034619,-330.794054
136.514799,-214.002924,-406.718704
123.609932,-224.666901,-394.905750
133.833567,-187.311199,-330.871008
127.220759,-218.641189,-378.691467
123.575451,-214.881222,-366.852349
147.966099,-197.506468,-416.727730
123.400879,-212.595520,-351.192322
124.057497,-169.530782,-312.172177
124.228629,-205.542865,-342.547734
144.590469,-196.238358,-379.919144
124.268831,-169.283086,-314.142703
155.612359,-136.222190,-332.929444
123.652666,-208.811283,-351.004150
124.150333,-195.620216,-312.787038
124.155103,-187.281820,-315.481161
123.662619,-129.326707,-310.881701
153.567902,-168.690167,-349.432999
127.959643,-215.227450,-382.804046
144.990540,-138.266754,-322.152039
123.962618,-175.231815,-314.481647
124.264931,-210.939227,-315.986707
129.007547,-220.343674,-406.668152
140.124191,-165.126351,-317.191742
124.260565,-201.540870,-318.676217
124.234837,-163.496610,-312.294370
144.480728,-179.425769,-356.702633
170.163257,-147.586473,-296.826657
123.829161,-129.527965,-308.726721
125.712585,-197.038277,-324.696345
124.394744,-199.437352,-330.405872
154.674281,-160.077474,-338.203507
124.042141,-197.149558,-312.074921
154.835205,-176.165889,-311.223236
131.904429,-177.460490,-316.913435
133.766324,-205.115767,-370.976993
124.091897,-175.330070,-315.987483
124.111449,-217.937302,-382.685791
147.521851,-191.428380,-307.864054
134.823921,-189.988007,-335.915863
123.925433,-224.636876,-396.668243
159.245158,-140.112086,-328.971792
124.327746,-221.127383,-378.705198
124.265544,-171.272620,-312.890591
127.742576,-221.031682,-398.546417
123.820951,-199.071073,-326.756844
146.540844,-141.323324,-332.732479
124.440119,-197.786167,-334.673573
123.740390,-137.247299,-310.621273
150.148950,-153.345398,-318.705566
124.150880,-218.920867,-388.629643
132.358621,-209.306625,-408.709435
124.326224,-219.835640,-374.746506
124.968226,-216.341939,-378.329508
124.233178,-179.212777,-315.373897
141.445292,-197.029719,-400.534760
124.029517,-137.172322,-306.808156
146.186411,-171.295080,-352.663124
124.236176,-131.478767,-306.696877
124.436337,-219.027121,-392.724136
138.553091,-201.494618,-368.654896
124.234276,-221.579575,-404.761650
123.971074,-127.522224,-310.552521
123.857111,-139.250039,-308.777030
151.258647,-193.466408,-410.258586
123.935750,-139.208132,-310.775387
139.216568,-155.318264,-323.457924
166.057946,-155.399163,-291.201399
135.896113,-167.355822,-316.852107
124.071840,-219.621188,-404.708277
124.285288,-223.955174,-392.666859
140.438751,-148.416840,-311.878906
153.027267,-155.482727,-321.911774
132.361581,-213.472283,-380.589883
172.279668,-137.508626,-294.114883
144.956413,-180.128037,-307.145508
124.565492,-218.020408,-384.576301
124.373049,-211.736932,-358.625780
124.429451,-203.574573,-317.250634
128.369724,-215.500337,-372.676319
124.456913,-133.528179,-312.450531
144.916969,-188.378670,-384.043061
128.113837,-146.066093,-305.891011
155.265472,-168.283279,-363.809723
124.340085,-183.662854,-318.134765
124.697218,-206.067416,-348.235651
124.441599,-221.912766,-382.751568
136.344373,-215.650442,-422.788342
147.449280,-168.584770,-332.608322
126.464895,-215.740994,-410.818235
145.514141,-169.193342,-340.903769
124.386370,-139.268419,-306.645569
144.138189,-187.462149,-372.592923
124.048625,-141.353073,-310.793190
124.465729,-167.614096,-313.806067
124.553307,-137.474819,-312.577168
124.472872,-129.384474,-312.555732
129.954660,-211.292590,-364.801208
124.526685,-185.356064,-315.792084
146.381597,-163.622011,-344.748474
124.550755,-202.118828,-342.353080
150.163095,-197.301053,-406.681598
131.780782,-209.338830,-412.516454
168.144929,-141.255794,-292.861063
124.647923,-213.650086,-356.255527
134.063184,-205.362325,-358.601939
133.526298,-210.984555,-392.690262
124.474860,-209.883053,-354.491123
126.449216,-214.068163,-362.643629
124.141069,-143.506249,-310.748352
143.072174,-182.251358,-356.629929
152.604244,-189.501032,-398.829395
136.357191,-185.467957,-326.746381
158.036161,-139.495065,-344.324473
173.862459,-167.000264,-302.281180
132.794128,-110.291656,-317.900482
124.370889,-143.544317,-308.657389
124.588317,-135.474106,-312.574734
135.718649,-159.439529,-319.267700
125.252522,-216.653762,-367.127884
142.182018,-147.157597,-311.034720
124.500555,-141.273909,-312.797513
157.720346,-149.459982,-316.806183
139.348602,-190.540787,-339.625641
124.636771,-129.449370,-307.031271
128.790074,-193.875683,-321.274734
148.349159,-141.528261,-336.631832
146.390041,-169.195789,-354.743347
124.649448,-139.445589,-312.895230
130.140710,-219.461135,-410.651196
140.019547,-211.421078,-408.632441
124.651885,-141.352797,-306.796861
124.539490,-145.346877,-312.853313
125.350851,-198.792852,-331.282552
124.588014,-212.111881,-360.215985
124.711693,-203.496500,-309.485284
124.878099,-220.897119,-408.645874
139.891355,-193.444136,-348.762629
124.682015,-205.368961,-309.532204
124.751007,-197.803596,-311.565948
124.857744,-214.242599,-368.418207
140.339994,-199.458824,-400.707862
134.081759,-207.486840,-380.763592
124.729010,-137.320536,-305.379627
156.180649,-167.098000,-348.906117
124.739199,-147.359960,-312.611874
124.726441,-147.557807,-310.688151
135.892805,-189.271531,-336.682744
124.747934,-135.271560,-305.142258
124.857506,-162.351745,-311.082977
142.103943,-146.011272,-310.047508
138.646052,-193.772444,-344.684011
124.640711,-198.201626,-324.873741
124.730593,-219.398475,-408.786887
137.701540,-111.560962,-318.034068
124.661434,-198.217003,-326.876663
144.280070,-171.519093,-314.645153
149.944896,-171.267021,-308.693422
124.797100,-198.291214,-322.850372
124.867220,-198.144161,-336.578453
135.640256,-149.313013,-319.419714
124.683842,-181.555778,-317.757630
139.667175,-189.229200,-354.693245
128.635603,-216.009338,-394.602394
124.770513,-216.141575,-376.811996
133.433103,-184.976132,-327.214966
130.483318,-179.598717,-320.046318
124.791655,-218.389324,-400.860214
144.862276,-185.690767,-374.698748
124.755442,-218.359463,-402.910606
143.195018,-165.441752,-331.286112
134.441193,-209.588102,-380.685678
129.978405,-153.787048,-311.973442
124.878431,-146.974346,-309.347664
124.830856,-190.421051,-321.827515
140.933868,-159.909248,-325.850418
150.771789,-195.884094,-396.632717
124.876183,-202.149445,-317.530762
156.169682,-132.998766,-338.640536
124.888062,-162.230774,-311.804565
157.725464,-162.134926,-314.102089
147.045578,-170.274048,-362.354752
124.967819,-139.157723,-305.490997
131.216130,-204.759527,-351.041809
138.409478,-145.706667,-320.541731
124.931648,-218.334869,-408.970204
170.004733,-149.337621,-289.152970
159.988672,-151.374050,-348.297351
136.016202,-171.575049,-317.324986
125.007126,-143.186417,-313.816177
134.655393,-203.805794,-370.505997
135.690826,-203.003150,-370.817361
124.969617,-148.607534,-312.195750
125.019279,-148.715347,-311.241287
124.968239,-204.261002,-345.961426
124.968536,-196.311111,-331.705109
151.595128,-133.913508,-314.548070
129.976168,-219.093136,-402.537554
141.033944,-179.997498,-328.183091
126.728969,-215.466913,-422.694109
125.034882,-186.440186,-315.770172
125.058472,-122.090881,-311.933655
125.092667,-145.218140,-313.894592
139.011749,-198.251984,-409.404602
125.108650,-218.068130,-411.774109
131.305766,-212.608983,-373.098134
125.464942,-223.065450,-392.710022
133.696827,-196.906486,-340.901021
146.408045,-171.416424,-358.735852
125.892361,-199.161240,-338.570518
126.083475,-191.375023,-314.362038
184.765198,-160.342163,-298.011963
126.389100,-209.734340,-352.679042
141.441879,-191.178327,-356.741671
125.491609,-212.820152,-364.926142
154.199001,-150.064753,-316.750462
125.875242,-199.367864,-318.654333
126.126705,-213.677051,-370.622602
125.524135,-125.097040,-308.303796
125.637236,-216.845512,-369.045296
126.199090,-221.820201,-406.623339
125.326857,-216.531734,-380.588249
125.899156,-209.466193,-316.038645
128.168744,-129.428775,-315.326465
126.032776,-173.329936,-314.455397
152.486740,-161.265503,-334.699208
125.628420,-163.335637,-313.224136
133.398346,-206.792872,-360.982127
125.956029,-221.363893,-410.682900
135.599097,-214.629965,-406.577252
126.074199,-189.513318,-315.036692
140.018417,-183.375617,-336.720673
125.234421,-147.801971,-313.542160
137.519381,-178.938080,-315.990417
132.304543,-191.912128,-330.372891
146.109071,-169.293913,-346.534210
126.877499,-216.041633,-404.878311
125.861249,-219.255682,-376.798883
146.405737,-183.598991,-311.281128
184.059346,-161.362164,-300.772928
182.003451,-161.362780,-296.933854
125.487013,-205.128780,-343.366799
125.670403,-211.237385,-360.860965
168.076645,-121.176014,-290.113290
136.037058,-117.392910,-317.027606
134.301141,-179.281544,-316.707768
125.590447,-219.443842,-412.816772
154.591020,-136.842241,-314.992450
176.062637,-125.544563,-285.295057
138.245152,-111.325242,-310.309948
125.860307,-209.426858,-356.743815
151.604365,-166.955989,-310.312515
134.336539,-205.568752,-362.860221
125.779347,-175.311335,-316.686208
142.097475,-179.189206,-336.770342
166.249540,-173.958381,-296.368556
130.078877,-195.461896,-316.835680
125.598778,-220.649816,-381.325429
125.692060,-217.117128,-408.626176
132.577034,-218.329795,-423.323685
125.621867,-135.278310,-304.116058
125.160255,-129.180588,-313.352112
174.693146,-156.385757,-303.716003
131.954004,-133.445135,-301.249194
126.013004,-131.227914,-304.574503
150.154432,-186.723894,-398.851697
126.249907,-199.590857,-340.760528
125.611537,-218.842279,-374.934836
144.308665,-175.376110,-330.640823
130.085024,-139.570478,-316.035324
126.001735,-207.264631,-346.758442
126.226944,-161.710220,-312.533989
143.540166,-179.169922,-352.915416
181.903866,-141.370041,-299.283990
164.406082,-153.427950,-294.641778
152.032576,-169.842054,-366.733851
134.582262,-209.822178,-394.602299
126.187878,-211.364285,-354.733144
125.943171,-197.356639,-336.742861
141.660697,-179.455267,-328.824102
126.012957,-207.635355,-316.289639
126.019935,-213.256643,-358.829942
146.574258,-186.013040,-364.348773
127.651667,-201.457624,-308.340937
125.192291,-219.978638,-411.644470
125.572789,-222.969116,-400.713046
147.003820,-138.163427,-332.043406
125.603846,-214.901787,-362.782695
127.391022,-200.567886,-339.667450
143.465523,-193.538451,-388.656438
125.768746,-123.533464,-308.665515
125.909983,-185.358678,-316.000707
131.900870,-191.071840,-312.244140
136.921128,-159.667550,-315.759277
125.921749,-195.072981,-328.937387
137.952763,-211.221400,-400.724300
131.514121,-211.052571,-380.776842
146.942961,-179.638209,-376.641235
133.660824,-125.839477,-303.542590
138.933048,-200.105725,-418.399971
125.680794,-217.398743,-412.818149
125.392731,-188.822022,-321.240163
157.328274,-182.681286,-299.212601
125.828949,-149.703008,-310.587830
126.052884,-183.522838,-318.938515
153.744141,-169.269605,-304.600133
126.139746,-203.728835,-346.633227
145.534986,-188.916562,-366.963298
132.112470,-117.313438,-317.922516
125.753774,-197.062841,-326.704971
132.133328,-217.373283,-404.734011
128.066486,-161.252038,-312.568559
125.418515,-121.347359,-310.561741
142.559563,-181.861788,-308.990953
132.315371,-211.365374,-386.701371
126.157835,-217.589533,-398.744809
131.606460,-184.792816,-315.839157
126.701263,-132.270004,-303.595032
144.865987,-147.567126,-332.148244
155.864703,-167.724167,-362.575989
126.195228,-205.251073,-316.125684
125.951261,-217.027952,-370.728183
133.974605,-215.215882,-402.698940
138.370063,-151.343270,-322.247742
125.700372,-133.416537,-304.233649
125.203629,-126.520630,-307.954224
141.721359,-209.395137,-406.754419
125.864877,-139.303294,-304.532952
136.224813,-203.230004,-376.762882
146.189353,-199.496697,-418.829157
125.946562,-195.032249,-330.808124
125.393541,-217.209895,-410.688900
135.865206,-125.426844,-312.665603
184.896343,-158.032623,-296.076515
125.816938,-216.745253,-382.715665
130.966510,-212.253513,-382.755127
125.401059,-192.911082,-325.182210
132.043755,-155.403856,-316.597794
142.662329,-187.905330,-364.489319
125.612616,-213.102366,-366.736020
125.886115,-199.406111,-310.219065
156.417500,-153.729726,-326.645685
132.014134,-195.157836,-340.745876
126.182654,-191.633419,-324.643669
132.016735,-201.219959,-313.824432
125.774177,-197.204379,-322.684087
125.727794,-209.033600,-349.138962
126.187837,-181.460502,-318.391469
147.409645,-174.988655,-320.159210
134.205723,-205.543531,-364.796440
131.991373,-209.485358,-410.681415
128.296028,-197.340489,-334.584619
160.573260,-165.378749,-313.211059
125.975833,-201.113364,-338.880418
126.365659,-197.683002,-332.582602
129.327827,-210.709271,-360.884849
163.217010,-124.718460,-289.531799
126.268270,-117.518145,-312.589025
125.733022,-210.946783,-352.692925
126.019894,-181.402965,-316.056614
148.519511,-177.836225,-315.191538
125.604918,-149.665518,-312.733921
149.845041,-169.306628,-310.410689
125.970323,-187.403613,-320.823508
125.820584,-143.792542,-306.166066
174.678370,-157.736674,-291.891083
130.489938,-135.544217,-315.853540
155.294861,-166.543289,-305.855835
143.719835,-179.340795,-348.570953
125.635597,-171.057205,-313.486068
125.720442,-164.965036,-311.305963
145.808372,-175.568498,-356.544009
129.531281,-196.499191,-309.980255
126.010870,-215.101466,-364.734619
125.868460,-197.278777,-328.679648
125.608805,-223.195427,-394.576767
125.602029,-202.989070,-340.916544
141.003533,-202.158371,-305.868225
131.649952,-190.967850,-332.934292
153.449936,-179.932728,-380.226211
125.796394,-217.192789,-404.724759
144.642828,-189.455818,-384.880221
130.046851,-169.401883,-315.236294
145.730215,-185.260876,-382.648010
126.054363,-175.237483,-315.059226
125.976496,-145.455476,-306.764415
125.855418,-206.978721,-350.655701
125.681761,-220.969277,-382.723887
134.302448,-183.732956,-315.297253
126.097308,-199.281589,-334.769433
153.916992,-144.718456,-307.323524
144.791097,-189.381165,-388.699763
126.377888,-209.030758,-311.132759
148.307330,-175.454691,-306.842641
126.355884,-193.547286,-328.624466
132.194471,-113.281219,-318.591570
128.915497,-165.706352,-315.817444
125.286972,-142.065887,-306.064209
126.260949,-183.529077,-316.151276
126.061570,-217.312232,-400.726083
144.830602,-189.793164,-396.605998
147.971043,-177.436100,-354.661255
126.272531,-189.593299,-322.651766
125.920970,-203.111806,-344.892124
141.971669,-189.322997,-362.616112
125.318359,-146.313736,-308.039825
147.804208,-178.961041,-314.526260
159.514154,-163.444275,-348.770726
137.490310,-114.576344,-318.048614
125.342644,-137.625000,-313.492523
144.714477,-171.425935,-338.659925
129.815932,-211.032751,-374.787994
126.209358,-167.241941,-312.453508
142.820679,-183.753797,-358.435285
126.400789,-165.731174,-311.952072
126.098863,-197.597490,-320.759094
127.440777,-214.683110,-410.622070
142.478953,-174.008474,-315.054026
139.850071,-193.420768,-360.830786
125.585457,-198.834297,-319.819519
126.146775,-209.498365,-350.531376
126.087259,-139.423818,-314.190369
126.073695,-205.135464,-348.729973
126.238894,-221.530413,-388.548231
158.171431,-179.417318,-296.982391
153.902840,-185.373439,-374.798819
170.094620,-147.252308,-288.540829
126.061241,-217.445082,-386.654544
132.122418,-197.445705,-344.720994
126.320680,-203.713912,-342.555065
135.578579,-205.468038,-382.875990
126.111316,-141.560604,-314.406363
126.122158,-171.652006,-314.673068
125.413929,-135.354446,-313.434143
130.044882,-201.344241,-306.813892
174.011482,-161.450266,-304.365932
126.265100,-217.589049,-388.697131
144.826181,-190.240723,-400.373205
143.925849,-199.062768,-304.916796
126.254149,-165.300425,-314.190965
126.023579,-197.133785,-334.620560
144.683044,-175.389644,-348.692177
126.199101,-201.376354,-316.832894
126.347436,-203.342485,-308.732113
154.127719,-164.794644,-359.196887
125.995360,-147.492622,-314.379517
126.046773,-127.286691,-306.513692
126.048467,-187.979202,-315.501434
138.341721,-195.668920,-360.585255
126.217384,-217.439253,-372.551945
126.199393,-213.149047,-368.761004
145.885595,-177.000875,-354.706787
148.187201,-187.167747,-298.392644
134.047100,-181.353960,-316.209377
125.882981,-223.151533,-396.746487
138.374407,-143.855321,-308.249735
140.534588,-180.083742,-324.760261
148.556207,-171.929476,-323.194013
126.151800,-121.669447,-308.892524
164.285858,-151.782661,-328.589389
148.238384,-133.526503,-308.749844
126.445414,-215.539861,-370.731822
125.490372,-222.455582,-389.460754
126.389762,-221.161072,-412.461182
126.384874,-185.813852,-320.167568
140.681814,-197.967401,-416.219910
134.060171,-211.376268,-430.258981
125.523773,-212.432312,-355.578918
126.399774,-195.444530,-332.837416
126.256568,-169.538193,-314.982439
139.001602,-184.382538,-335.757446
126.339378,-197.564948,-330.729701
135.413299,-206.831592,-402.697914
139.262844,-157.292957,-323.453667
125.640488,-210.517010,-314.838699
126.163758,-192.600288,-313.845978
134.096409,-147.493077,-318.238059
186.190773,-147.202288,-301.464747
126.169418,-199.787781,-336.524237
126.828552,-138.897125,-303.667053
126.146482,-125.556230,-314.312809
156.200423,-147.574451,-345.312062
126.254466,-209.818343,-312.543324
142.138567,-197.402953,-416.688014
126.332890,-203.108616,-316.176647
135.602972,-163.131510,-319.469147
126.380377,-127.429943,-314.421155
125.848477,-119.444504,-314.826181
125.988675,-119.417321,-310.715668
126.157083,-129.475869,-314.154439
158.292250,-140.805055,-322.503189
127.930806,-165.542864,-315.200404
126.280721,-179.630788,-317.924184
126.407294,-129.587259,-304.937786
191.400366,-151.270319,-297.123134
126.228205,-207.023197,-309.468949
126.364918,-219.839947,-380.536245
151.392047,-185.942096,-394.661932
126.322793,-209.686358,-358.532949
143.320038,-180.802928,-335.308146
126.360274,-215.475218,-366.617325
126.401118,-222.040203,-404.624779
128.016904,-119.308481,-316.665100
137.131363,-200.737831,-355.308289
126.477971,-125.519356,-306.922604
165.908917,-141.596054,-286.445310
161.634809,-165.333862,-312.201691
134.076729,-209.729937,-429.931827
125.691727,-210.482849,-351.606323
135.502187,-173.135091,-321.457519
126.354485,-137.334685,-314.216713
131.669056,-217.027105,-400.705429
138.748215,-195.899071,-366.523951
126.321202,-217.779235,-394.576510
126.416773,-197.997042,-338.458156
126.367987,-149.324331,-314.209842
129.481862,-190.769317,-313.914602
127.944879,-221.131923,-408.799051
126.194837,-208.049444,-310.132609
158.881065,-140.639118,-326.902771
150.055445,-164.227163,-358.004018
126.436565,-135.455709,-314.205638
162.082211,-155.268718,-348.607598
157.637520,-150.743675,-321.208054
126.477454,-208.061471,-348.651214
144.554742,-181.526117,-346.599113
126.328026,-186.688553,-315.828079
126.441628,-149.336058,-308.977905
130.546213,-165.337677,-314.022376
138.510166,-203.831680,-380.734175
138.570155,-197.165884,-311.576955
126.418986,-133.544957,-314.176440
129.394470,-136.438278,-315.651611
154.321344,-155.375265,-324.643423
167.149628,-152.505463,-297.587189
126.110835,-117.421332,-314.868374
126.609151,-222.048664,-402.857308
126.501349,-217.945601,-374.663563
126.509056,-215.908642,-368.396511
141.120667,-192.557175,-357.671783
145.197952,-186.439430,-380.664840
141.496340,-195.409513,-366.780300
126.561959,-211.778587,-356.729328
126.469147,-219.053414,-416.814732
126.483378,-221.785465,-390.710610
126.502645,-135.367733,-303.337517
137.347977,-198.619598,-351.338074
126.570165,-215.534280,-418.760401
130.173377,-219.841966,-414.666398
129.563153,-170.842045,-315.411217
158.483423,-156.079967,-336.425759
126.582698,-211.656827,-364.615472
132.109542,-211.457484,-372.551912
126.943833,-208.208277,-356.624471
145.043915,-174.114921,-348.107163
126.604894,-150.976584,-311.089016
126.722381,-193.970144,-330.250814
126.618189,-133.828804,-303.331063
136.074054,-123.427701,-304.940912
126.628847,-214.060263,-374.655461
149.672801,-179.322420,-298.489509
165.989749,-121.321110,-286.516632
143.067322,-154.096466,-329.989624
126.611828,-209.938564,-314.873060
126.582924,-137.229206,-303.458748
126.736155,-117.575144,-310.955087
126.583160,-119.371441,-315.920379
126.738468,-199.961933,-317.083237
126.766307,-222.042727,-400.650064
140.250169,-181.389998,-320.720161
142.613534,-205.671085,-423.112579
140.169636,-155.963848,-315.841575
131.985357,-211.216762,-402.730362
126.598847,-163.470154,-313.898392
147.146576,-164.689941,-355.576935
152.617042,-189.924917,-302.646614
138.044599,-189.347565,-338.683777
152.675895,-189.422907,-396.827358
170.235598,-135.450603,-284.201900
126.753319,-143.256592,-305.253194
126.736803,-215.615980,-416.685920
132.000269,-191.318812,-318.551564
126.689560,-171.541972,-315.972026
126.756736,-209.964704,-360.610753
126.734960,-216.159092,-382.848785
126.791894,-115.833365,-314.537711
126.983956,-215.202985,-426.608716
126.727827,-220.022943,-382.531546
188.205821,-147.484904,-294.039419
184.364909,-141.709757,-299.912069
126.842013,-222.080875,-396.529229
150.636707,-195.907779,-394.603502
129.791828,-177.194786,-316.520714
126.807491,-222.083723,-398.890877
126.888203,-197.717204,-318.949306
126.880256,-116.032728,-313.175028
126.705507,-215.822628,-408.916298
126.763359,-195.966225,-322.883468
154.295708,-153.537560,-322.603213
126.743360,-195.826019,-324.827843
142.068178,-197.322611,-310.378760
145.189270,-145.184937,-331.447632
131.127167,-194.696777,-333.494873
126.873413,-218.260371,-376.598002
143.447074,-189.284324,-372.860250
126.799088,-212.356262,-367.826538
148.072722,-167.453742,-360.601827
126.882522,-187.981759,-322.054474
126.857371,-195.886696,-326.865234
132.534442,-191.551308,-311.392822
141.484039,-195.189818,-406.519847
126.930681,-215.464597,-424.910434
152.035820,-193.280865,-398.726697
168.017831,-120.703407,-286.488634
126.960556,-196.255122,-321.197042
126.984013,-216.366951,-384.095444
151.132126,-194.726669,-410.110901
126.923096,-127.523781,-305.536499
126.959030,-121.361221,-315.738831
139.027795,-197.985513,-410.596704
